ply
format ascii 1.0
element vertex 186
property float x
property float y
property float z
property uchar red
property uchar green
property uchar blue
end_header
-2.925 3.675 0.425 196 0 0
-2.625 3.375 0.425 157 0 0
-2.625 3.375 0.575 139 0 0
-2.475 4.425 0.725 133 0 0
-2.325 3.525 0.275 154 0 0
-2.325 4.425 0.425 131 0 0
-2.325 4.425 0.875 139 0 0
-2.175 1.875 0.725 149 0 0
-2.025 2.025 0.125 136 0 0
-2.025 2.025 0.725 196 0 0
-2.025 3.225 1.625 123 0 0
-1.875 1.725 1.025 123 0 0
-1.875 3.225 1.775 126 0 0
-1.725 2.475 0.425 149 0 0
-1.725 2.625 0.725 141 0 0
-1.725 3.075 1.175 152 0 0
-1.575 0.975 0.275 139 0 0
-1.575 3.225 0.875 131 0 0
-1.575 4.425 0.725 141 0 0
-1.275 0.525 0.125 128 0 0
-1.275 4.725 1.025 133 0 0
-1.275 5.625 0.575 147 0 0
-1.125 2.025 1.025 144 0 0
-1.125 2.475 1.925 233 0 0
-1.125 3.375 1.325 136 0 0
-1.125 3.525 1.625 165 0 0
-1.125 4.575 1.325 157 0 0
-0.975 0.675 -0.025 157 0 0
-0.975 2.025 1.025 152 0 0
-0.975 2.175 1.325 165 0 0
-0.975 2.625 1.475 168 0 0
-0.975 3.225 0.125 147 0 0
-0.975 3.825 1.625 173 0 0
-0.975 4.875 1.475 165 0 0
-0.975 5.325 0.275 160 0 0
-0.975 5.625 0.725 123 0 0
-0.825 2.475 1.025 210 0 0
-0.825 2.625 1.325 202 0 0
-0.825 3.975 0.275 191 0 0
-0.675 2.475 0.425 255 112 0
-0.675 2.625 0.275 255 138 0
-0.675 2.625 1.175 231 0 0
-0.675 2.625 1.475 212 0 0
-0.675 2.775 0.125 160 0 0
-0.675 2.925 0.275 191 0 0
-0.675 4.125 0.425 255 7 0
-0.675 4.575 1.625 162 0 0
-0.675 4.875 0.875 181 0 0
-0.675 4.875 1.025 199 0 0
-0.525 0.375 -0.025 131 0 0
-0.525 1.725 0.875 255 255 255
-0.525 1.875 0.875 255 47 0
-0.525 2.025 0.725 168 0 0
-0.525 2.025 0.875 255 28 0
-0.525 2.175 -0.025 170 0 0
-0.525 2.325 0.275 160 0 0
-0.525 2.475 0.275 173 0 0
-0.525 2.475 0.425 255 68 0
-0.525 2.475 0.575 173 0 0
-0.525 2.475 0.725 186 0 0
-0.525 2.775 0.275 223 0 0
-0.525 4.125 1.475 255 199 0
-0.525 5.625 -0.025 136 0 0
-0.375 0.375 -0.025 120 0 0
-0.375 1.875 0.875 160 0 0
-0.375 1.875 1.175 255 60 0
-0.375 2.025 1.175 255 255 255
-0.375 2.175 0.725 196 0 0
-0.375 2.325 0.575 181 0 0
-0.375 2.325 0.725 212 0 0
-0.375 2.475 1.325 223 0 0
-0.375 2.625 0.125 160 0 0
-0.375 2.775 0.275 154 0 0
-0.375 4.125 -0.025 246 0 0
-0.375 4.275 1.175 207 0 0
-0.375 4.275 1.475 154 0 0
-0.375 4.725 1.175 173 0 0
-0.375 5.325 0.875 207 0 0
-0.225 1.875 1.175 255 96 0
-0.225 2.475 1.175 165 0 0
-0.225 2.475 1.325 191 0 0
-0.225 2.625 1.475 202 0 0
-0.225 4.125 -0.025 255 5 0
-0.225 4.125 1.475 175 0 0
-0.225 4.425 1.325 175 0 0
-0.225 5.325 0.875 202 0 0
-0.075 2.775 -0.025 154 0 0
-0.075 2.775 0.275 199 0 0
-0.075 4.125 1.475 178 0 0
-0.075 4.425 1.475 255 73 0
0.075 2.625 0.425 194 0 0
0.075 5.325 1.325 139 0 0
0.075 6.075 0.575 236 0 0
0.225 3.375 1.625 154 0 0
0.225 3.975 1.175 128 0 0
0.225 5.325 -0.025 246 0 0
0.375 2.325 1.325 144 0 0
0.375 4.275 0.575 141 0 0
0.675 2.925 0.425 181 0 0
0.675 2.925 0.575 255 117 0
0.675 4.575 0.425 147 0 0
0.825 2.025 1.025 178 0 0
0.825 4.125 0.275 220 0 0
0.825 5.025 0.425 154 0 0
0.975 0.375 -0.025 178 0 0
0.975 1.575 0.875 160 0 0
0.975 1.575 1.025 255 255 125
0.975 1.575 1.175 183 0 0
0.975 1.725 1.025 255 86 0
0.975 2.025 1.025 238 0 0
0.975 2.175 1.025 186 0 0
0.975 5.775 0.425 170 0 0
1.125 1.275 0.425 255 28 0
1.125 1.575 0.725 152 0 0
1.125 1.725 0.875 157 0 0
1.125 1.725 1.175 162 0 0
1.125 1.725 1.325 168 0 0
1.125 1.875 1.025 144 0 0
1.125 5.175 -0.025 186 0 0
1.125 5.175 1.325 165 0 0
1.275 0.375 -0.025 133 0 0
1.275 1.425 0.575 147 0 0
1.275 1.725 0.875 170 0 0
1.275 1.875 1.175 149 0 0
1.275 2.025 1.025 160 0 0
1.275 2.025 1.175 178 0 0
1.275 2.175 0.425 168 0 0
1.275 2.175 0.725 215 0 0
1.275 2.175 1.025 152 0 0
1.275 2.325 0.275 149 0 0
1.275 2.325 0.725 178 0 0
1.275 5.175 1.325 173 0 0
1.425 0.525 0.275 131 0 0
1.425 1.875 0.875 194 0 0
1.425 2.025 0.875 255 172 0
1.425 2.025 1.175 212 0 0
1.425 2.175 0.575 178 0 0
1.425 2.175 0.725 255 73 0
1.425 2.175 0.875 189 0 0
1.425 2.175 1.325 168 0 0
1.425 2.325 0.425 181 0 0
1.425 2.325 0.575 183 0 0
1.425 2.325 0.725 170 0 0
1.425 2.475 0.725 144 0 0
1.425 2.625 0.125 160 0 0
1.425 2.775 0.125 141 0 0
1.425 4.875 1.475 141 0 0
1.425 5.175 -0.025 173 0 0
1.425 5.175 0.125 165 0 0
1.425 5.175 1.175 178 0 0
1.575 2.175 0.275 152 0 0
1.575 2.175 0.575 210 0 0
1.575 2.325 0.425 194 0 0
1.575 2.475 0.275 255 89 0
1.575 2.625 0.425 128 0 0
1.575 4.725 1.025 173 0 0
1.575 5.025 1.175 189 0 0
1.725 2.175 1.775 175 0 0
1.725 2.325 0.425 162 0 0
1.725 2.625 0.275 255 44 0
1.725 5.175 0.575 154 0 0
1.725 5.175 1.025 136 0 0
1.725 5.175 1.475 147 0 0
1.725 5.325 1.025 152 0 0
1.875 2.175 0.575 136 0 0
1.875 2.475 0.275 133 0 0
1.875 2.925 0.575 126 0 0
1.875 5.175 1.475 162 0 0
2.025 3.975 0.125 154 0 0
2.025 4.575 1.775 154 0 0
2.025 5.175 1.325 162 0 0
2.175 2.175 0.425 136 0 0
2.175 3.675 0.275 141 0 0
2.175 3.825 0.275 128 0 0
2.175 3.975 0.725 126 0 0
2.175 4.425 1.325 178 0 0
2.175 5.175 -0.025 139 0 0
2.325 3.225 -0.025 126 0 0
2.325 4.275 1.475 133 0 0
2.475 3.675 0.275 131 0 0
2.475 4.425 1.775 141 0 0
2.625 3.225 0.575 139 0 0
2.775 3.375 0.575 152 0 0
2.775 4.125 1.625 160 0 0
2.925 3.075 0.575 136 0 0
2.925 3.375 0.275 136 0 0
